13.710173 144.000000 80.018
13.710173 144.000000 75.018
13.710173 144.000000 70.018
13.710173 144.000000 65.019
13.710173 144.000000 60.019
13.710173 144.000000 55.019
13.710173 144.000000 50.019
13.710173 144.000000 45.020
13.710173 144.000000 40.020
13.710173 144.000000 35.020
13.710173 144.000000 30.021
13.710173 144.000000 25.021
13.710173 144.000000 20.021
13.710173 144.000000 15.021
13.710173 144.000000 10.022
13.710173 144.000000 -0.000
6.788807 148.686700 2.760
6.788807 139.313300 3.799
-22.092789 166.721402 381.675
-22.092789 166.721402 376.691
-22.092789 166.721402 371.707
-22.092789 166.721402 366.724
-22.092789 166.721402 361.740
-22.092789 166.721402 356.757
-22.092789 166.721402 351.773
-22.092789 166.721402 346.789
-22.092789 166.721402 341.806
-22.092789 166.721402 336.822
-22.092789 166.721402 331.838
-22.092789 166.721402 326.854
-22.092789 166.721402 321.871
-22.092789 166.721402 316.887
-22.092789 166.721402 311.904
-22.092789 166.721402 306.920
-22.092789 166.721402 301.936
-22.092789 166.721402 296.953
-22.092789 166.721402 291.969
-22.092789 166.721402 286.985
-22.092789 166.721402 282.001
-22.092789 166.721402 277.018
-22.092789 166.721402 272.034
-22.092789 166.721402 267.051
-22.092789 166.721402 262.067
-22.092789 166.721402 257.083
-22.092789 166.721402 252.100
-22.092789 166.721402 247.116
-22.092789 166.721402 242.132
-22.092789 166.721402 237.148
-22.092789 166.721402 232.165
-22.092789 166.721402 227.181
-22.092789 166.721402 222.198
-22.092789 166.721402 217.214
-22.092789 166.721402 212.230
-22.092789 166.721402 207.247
-22.092789 166.721402 202.263
-22.092789 166.721402 197.279
-22.092789 166.721402 192.296
-22.092789 166.721402 187.312
-22.092789 166.721402 182.328
-22.092789 166.721402 177.345
-22.092789 166.721402 172.361
-22.092789 166.721402 167.377
-22.092789 166.721402 162.393
-22.092789 166.721402 157.410
-22.092789 166.721402 152.426
-22.092789 166.721402 147.443
-22.092789 166.721402 142.459
-22.092789 166.721402 137.476
-22.092789 166.721402 132.492
-22.092789 166.721402 127.508
-22.092789 166.721402 122.524
-22.092789 166.721402 117.540
-22.092789 166.721402 112.557
-22.092789 166.721402 107.573
-22.092789 166.721402 102.590
-22.092789 166.721402 97.606
-22.092789 166.721402 92.622
-22.092789 166.721402 87.639
-22.092789 166.721402 82.655
-22.092789 166.721402 77.671
-22.092789 166.721402 72.687
-22.092789 166.721402 67.704
-22.092789 166.721402 62.720
-22.092789 166.721402 57.737
-22.092789 166.721402 52.753
-22.092789 166.721402 47.769
-22.092789 166.721402 42.786
-22.092789 166.721402 37.802
-22.092789 166.721402 32.818
-22.092789 166.721402 27.835
-22.092789 166.721402 22.851
-22.092789 166.721402 20.861
-22.092789 166.721402 18.870
-22.092789 166.721402 16.880
-22.092789 166.721402 14.890
-22.092789 166.721402 12.899
-22.092789 166.721402 10.909
-22.092789 166.721402 -0.000
-23.412381 157.863679 2.315
-14.991321 162.163774 4.584
